ply
		format ascii 1.0
		element vertex 23709
		property float x
		property float y
		property float z
		property uchar blue
		property uchar green
		property uchar red
		end_header
-848.601437 1083.340454 2162.929153 23 13 4
-842.547035 817.155361 2204.289055 12 4 1
-1495.536423 281.552076 1058.127689 169 170 161
1133.395195 982.526398 5841.421509 189 145 119
-855.626106 912.234783 2164.294815 41 26 11
-844.696999 1207.480335 2150.232887 6 1 1
-844.079971 131.886530 2272.482300 10 3 1
-840.053177 1080.579758 2169.487000 7 1 0
-838.541317 1255.588245 2152.216339 7 4 6
-1667.694283 161.050713 915.918827 140 129 119
-1476.442909 355.334568 1204.386997 140 129 119
-837.320137 710.636187 2206.365013 16 11 4
-838.512516 125.935054 2264.106178 16 11 10
-841.118240 1111.603928 2143.201637 10 7 5
1577.009678 4373.632431 6166.296768 200 176 152
-841.417789 178.314149 2242.536354 7 2 0
-831.539917 309.061265 2238.482857 3 2 3
-496.785307 386.642027 2834.642029 4 3 3
-832.303619 422.170734 2220.673370 20 3 0
-834.894848 139.635742 2243.367386 18 11 10
-840.353012 122.599077 2232.626152 9 4 3
-828.904152 1333.878136 2116.974640 12 8 6
-830.243492 600.569916 2189.310455 189 156 126
-828.497410 1315.859985 2111.159515 15 6 3
-825.685310 718.285561 2182.314110 11 5 5
-831.532764 746.311092 2167.755890 7 2 1
-834.910679 612.197876 2174.354935 8 3 3
-827.935219 185.708547 2230.048752 18 13 10
-830.785179 155.062127 2226.157761 207 184 159
-827.601624 610.017347 2181.075287 50 42 36
-824.701118 865.624523 2157.752991 27 19 13
-819.311428 1387.286568 2104.124069 60 41 22
-822.952366 352.452636 2211.813545 36 21 8
-828.344631 620.186663 2171.876526 13 8 7
-826.073170 1012.637329 2131.424713 5 3 1
-1792.812729 29.265454 708.764744 51 204 210
-823.147297 748.199654 2162.549973 43 38 36
-819.666576 990.926743 2141.542244 180 152 128
-1999.093246 -182.478452 390.053654 53 35 20
-831.850243 478.376627 2175.089836 169 163 144
-824.766541 352.131438 2201.480865 9 5 4
-820.799446 1342.899799 2098.346138 48 32 20
-822.472954 140.705335 2227.256012 32 27 26
-833.779335 547.698450 2156.148148 18 10 3
-817.717075 1363.317394 2093.567657 10 5 5
-823.027325 183.044267 2214.250565 4 3 2
-1481.175518 313.982439 1177.937412 43 38 36
-821.853447 140.739453 2210.227776 11 3 1
-830.715847 519.864607 2153.035355 200 184 158
-821.465969 1023.137474 2113.411522 14 11 6
-762.035370 68.023545 2320.042992 14 8 7
-817.071724 709.676981 2152.926064 5 2 1
-818.811607 748.600912 2142.048836 20 14 7
-817.152405 1153.124714 2100.441551 9 5 3
343.457413 671.989393 4153.718567 29 18 12
-819.342518 385.715604 2174.589920 4 1 0
-814.893723 260.000801 2194.796562 9 4 3
-820.656395 490.352726 2157.302856 13 8 5
-814.053059 562.315130 2160.724449 23 16 10
-822.416973 1190.130806 2076.485062 198 182 155
-813.009930 323.982453 2183.983231 18 9 2
-806.226540 977.203274 2122.956848 44 34 19
-807.643604 746.698713 2145.300865 225 196 159
-813.348007 1013.768864 2103.508186 52 37 21
-812.021923 1108.915806 2095.241737 23 11 4
-811.533833 1028.844643 2104.730415 69 55 44
-806.731892 265.060782 2194.450760 10 4 2
-818.264198 501.284885 2149.053574 176 168 151
-810.598564 886.323833 2120.020485 13 4 2
-810.598564 886.323833 2120.020485 13 4 2
-817.807770 1163.645172 2073.668480 136 126 106
-815.954113 914.951515 2101.482391 184 179 163
-807.479858 153.902221 2197.368050 4 1 1
-811.531353 1029.613304 2095.574188 30 25 22
-771.106100 71.014684 2265.836334 8 4 2
280.162001 2823.671532 3751.034164 158 140 117
-813.553810 500.648689 2146.819305 27 21 16
-799.110937 571.484518 2162.638855 5 5 3
-805.711269 130.598545 2198.103333 227 190 154
-806.122780 253.165388 2183.580017 3 1 1
-810.878754 182.400322 2182.295418 31 27 23
-810.878754 182.400322 2182.295418 31 27 23
-801.794529 204.982281 2194.605827 9 5 5
-804.745388 1297.731590 2071.250534 33 26 25
-804.745388 1297.731590 2071.250534 33 26 25
-777.637053 72.949129 2248.941422 32 27 25
-803.892803 487.321615 2155.478477 11 5 3
-805.472183 311.326289 2169.514084 20 5 1
-648.374796 1530.996513 2301.778603 11 5 4
-813.187981 784.564352 2104.417801 26 17 10
-806.198692 266.731787 2171.751785 159 125 93
-803.416157 914.644241 2105.596161 18 7 4
-801.898289 446.402645 2157.837486 12 7 5
-139.807057 632.825899 3249.748611 26 16 8
-808.181286 661.987305 2120.497322 17 13 9
-807.562733 161.763525 2173.203659 32 8 1
-801.800251 491.652489 2146.618652 29 22 15
-805.588341 530.268860 2135.454178 38 32 24
-1283.226681 618.412495 1444.253159 51 37 31
-807.583332 1060.095310 2073.336601 162 153 135
-795.074081 336.196566 2171.237373 191 168 135
-804.413033 215.924931 2167.714500 187 166 135
-801.734447 311.496735 2158.028221 23 9 4
-795.802069 232.334614 2175.106049 9 2 2
-801.345444 1102.375698 2071.684647 13 8 4
-798.436832 583.620977 2131.164360 32 20 16
-800.447369 508.939505 2134.879112 36 30 26
-797.274637 437.785625 2147.062302 219 204 182
-795.376110 579.982567 2134.623718 199 181 156
-797.388458 1258.921623 2058.009911 226 196 163
-800.854969 1183.145905 2059.733391 23 20 13
-794.485378 1254.909706 2060.905838 77 60 43
-799.162722 382.631540 2141.987228 13 4 3
-791.140366 1247.761631 2062.967491 13 7 5
-792.906237 371.007442 2150.242043 5 2 2
-792.022657 1166.852665 2067.168427 204 187 157
-790.648937 727.484989 2111.419106 22 19 16
-778.071976 1239.718533 2075.398636 7 5 3
-788.108826 898.188114 2093.986130 8 4 1
-632.769585 1490.840816 2285.013962 33 26 25
279.507256 2870.366859 3636.830902 23 10 4
-659.956312 1481.622219 2244.055367 33 26 25
-785.562038 912.233067 2093.552971 15 10 9
-788.711405 1264.609528 2050.636673 34 29 26
-1765.310097 43.329227 757.418728 16 4 1
-1810.388565 20.810342 698.039770 187 152 121
-1831.384850 14.992970 665.588474 23 10 2
-787.094975 803.524017 2093.827820 224 174 140
-1821.689987 22.545737 679.346752 51 37 31
-1239.956188 375.679755 1483.472824 34 23 14
-787.855148 1156.857014 2052.355576 208 162 135
-1077.922535 481.079054 1704.041290 188 166 136
-782.978630 807.823849 2093.608665 71 37 17
-782.992077 705.393696 2101.280594 223 200 174
-785.723352 1362.386608 2027.021408 155 126 103
-778.631163 828.961849 2093.304253 220 197 172
-784.858179 800.400734 2084.870911 63 35 20
-733.277893 249.971986 2240.764427 15 10 7
-777.345181 508.675480 2123.491669 235 211 182
-783.852291 1355.779743 2024.594498 56 41 25
1738.949776 696.725750 6148.871994 217 201 176
-778.692293 746.367979 2095.492744 18 8 2
-779.204893 792.465019 2083.282471 23 13 7
-746.421623 84.578532 2207.939720 15 10 9
-622.549963 1162.268639 2290.638351 16 11 6
-774.347305 813.200951 2080.131149 7 5 4
-1676.803589 112.117028 873.849869 15 11 10
-773.418856 826.502895 2076.825142 32 26 23
-775.113440 929.358768 2063.256264 13 9 5
-771.543646 1342.071247 2025.042534 23 19 18
-768.977308 1042.588997 2059.651756 9 9 7
-768.183517 979.948330 2065.587234 10 7 5
-600.952387 1487.898159 2271.002388 34 29 26
-772.844696 208.824229 2127.177429 157 127 104
-766.685390 1244.940472 2030.324173 12 3 1
-870.788670 954.383373 1935.538864 11 5 2
-771.344614 677.753210 2080.230522 11 4 2
-767.021894 305.624843 2120.367050 224 201 172
-767.021894 305.624843 2120.367050 224 201 172
-768.726254 869.208622 2059.206200 61 34 19
-766.413164 825.633430 2066.231918 37 15 8
-757.449484 669.181013 2094.251633 181 163 130
-765.614176 793.382168 2068.300056 4 2 0
-756.614494 1207.578754 2038.142204 164 148 123
-594.101429 880.046082 2318.090439 18 8 2
-743.777990 175.317729 2152.553749 39 30 26
-847.182751 1106.910801 1932.861900 182 160 135
-730.447340 80.330366 2180.120468 211 198 169
-1063.200378 231.082082 1705.879402 24 10 5
-753.117609 1291.509247 2018.826485 15 7 2
-757.159710 648.128080 2077.799797 7 5 5
-1298.517323 399.029613 1371.402550 8 5 2
-880.711174 256.014323 1947.735023 217 209 182
-751.342487 538.697863 2090.756607 23 11 4
-1299.892807 421.932316 1363.195801 7 3 2
-888.874340 327.472615 1923.034096 7 1 1
-846.712875 854.308033 1942.640877 14 6 3
-637.397814 1438.827705 2169.671059 23 17 12
-1294.362450 431.078625 1365.328789 9 5 4
-747.998667 933.887005 2037.845802 140 118 99
-735.392952 94.769138 2140.809631 8 4 1
-737.951899 123.329127 2131.703568 15 10 7
-752.712393 1333.088779 1986.285973 24 18 16
-737.451029 687.747145 2073.280716 218 198 170
-770.648432 407.026911 2057.356834 8 2 1
-750.023746 1189.380646 2001.548195 204 165 131
-861.760426 621.590281 1928.241730 215 194 173
-736.509466 869.345570 2049.190140 62 49 33
-1341.150284 245.865178 1312.632847 215 194 173
-730.315781 834.563732 2053.510284 211 199 174
-665.181589 58.191186 2223.289680 6 5 4
-733.625937 726.559544 2053.932953 6 2 2
-729.134464 579.649353 2074.510574 16 12 11
-729.134464 579.649353 2074.510574 16 12 11
-733.311033 386.360383 2086.883354 17 14 10
-731.122541 980.904102 2025.852394 11 6 5
-731.122541 980.904102 2025.852394 11 6 5
-711.520672 85.787684 2140.027618 37 26 19
-727.920341 1302.180672 1995.309830 10 6 5
-762.810659 683.501482 2010.127258 13 9 9
-718.697357 605.918026 2075.960350 10 6 5
-718.697357 605.918026 2075.960350 10 6 5
-637.888861 1055.030823 2161.519814 15 6 2
-868.291473 608.038807 1875.627899 18 13 10
-548.561859 228.386950 2363.718987 13 8 5
-1098.667049 437.663221 1605.155182 200 188 160
-726.458168 729.701805 2043.151283 190 157 131
-717.531347 750.183725 2053.294373 7 4 1
-638.577080 757.987547 2177.839470 204 183 154
-724.589109 910.384464 2022.324753 126 95 71
-717.112112 982.442379 2025.861740 196 175 146
-718.695259 303.534150 2086.922264 203 166 135
-718.695259 303.534150 2086.922264 203 166 135
-715.705061 341.825128 2083.508110 12 2 1
-717.901182 208.561778 2092.196083 249 213 211
-723.752213 1255.246162 1980.824280 230 204 175
-710.269260 1380.231190 1987.192345 23 19 16
-357.340574 1654.796600 2474.800301 142 124 94
-713.355732 309.622931 2081.423378 92 77 65
-529.150820 212.111163 2358.025360 10 5 5
-665.943336 261.430597 2168.368912 220 208 175
-1075.589275 503.754091 1609.369278 23 13 9
-635.694504 1322.522068 2101.657295 73 45 26
-689.610529 88.784575 2131.064415 7 4 5
-706.546068 696.803617 2046.486092 10 7 6
-1285.635185 407.478285 1340.570736 7 4 1
-882.548618 257.186913 1856.645584 12 8 5
-700.570726 975.825024 2022.549248 10 9 9
-705.927896 732.469893 2035.655975 18 9 6
-707.369804 1351.684856 1972.100639 32 24 20
-515.858316 266.678452 2351.641273 41 38 37
-707.882023 1088.149261 1995.439911 15 10 5
-702.778053 706.841516 2039.285660 6 2 1
-702.778053 706.841516 2039.285660 6 2 1
-696.062374 1400.353909 1979.115295 189 172 147
-699.516964 384.881806 2071.556473 21 17 17
-688.412237 114.346242 2108.281136 12 5 2
-699.449682 1133.819389 1992.069626 175 152 132
-688.805676 596.199083 2056.484032 211 200 168
-694.803905 124.955428 2092.864990 10 3 3
-695.247746 744.594431 2032.668304 17 6 2
-1872.122383 -18.680891 608.332157 172 153 129
-700.803280 1254.239941 1973.027992 14 9 10
-1147.774124 648.462200 1467.607021 189 153 129
-687.581587 467.374992 2063.380432 224 189 162
-688.597536 316.176820 2075.888634 10 5 2
-528.820038 1113.440514 2225.593185 20 16 12
-683.434868 735.853338 2042.195129 32 23 8
-689.712524 698.656130 2034.634781 233 203 180
-689.712524 698.656130 2034.634781 233 203 180
-692.275381 572.547531 2042.117310 57 45 40
-682.878876 388.496637 2068.881798 6 3 3
-1628.993416 151.611900 908.622456 73 59 36
-799.664783 652.428436 1916.770935 15 4 3
-677.341509 582.841015 2053.709412 7 6 6
-1324.229527 528.869772 1249.822617 25 19 13
-674.205971 722.302580 2036.598969 8 6 5
-686.872244 1148.892975 1978.471565 20 15 12
-680.197382 734.142733 2025.434113 94 91 87
-685.616779 1368.489552 1957.052040 22 17 13
-667.324734 112.029624 2099.960518 8 5 3
-673.620224 522.020245 2051.401711 12 7 6
-678.678942 1162.412548 1982.124901 12 6 3
-674.378395 112.892699 2086.526680 28 26 26
-668.881750 516.942644 2055.024529 184 170 144
-675.247622 490.815401 2048.492241 18 16 12
-654.638338 96.324915 2112.279701 8 5 5
-679.432869 1246.190453 1969.351006 21 9 6
-666.444445 348.657584 2069.622421 6 3 0
-667.944670 847.689724 2020.219421 196 181 158
-657.738543 343.143320 2080.683327 4 3 2
-597.402573 215.687084 2189.270973 26 24 22
-672.209549 398.429871 2050.828552 220 171 152
-1060.456467 457.797909 1583.945560 211 200 168
-666.456985 860.464859 2013.671684 18 8 3
-294.291592 1671.476936 2448.523521 50 34 21
-663.199711 305.360651 2067.947006 23 7 3
-660.235357 339.325428 2066.341400 12 8 7
-662.237883 555.928087 2042.938805 7 2 1
-667.360258 1201.955128 1975.197601 18 11 6
-960.610104 893.741798 1661.310196 127 111 81
-659.726429 653.105593 2034.992027 5 2 2
-660.531998 750.941229 2023.347855 122 120 112
-657.010365 330.759668 2067.279053 71 55 38
-820.549870 678.885269 1832.509232 80 64 58
-658.604813 1066.896725 1990.774345 8 3 3
-655.920315 673.154306 2029.494858 19 14 7
-648.200226 393.816710 2061.782074 26 18 13
-653.339815 675.956297 2027.316856 7 6 6
-646.075249 150.705898 2085.268593 18 14 11
-649.978256 817.560577 2016.449165 8 7 6
-645.895195 485.580301 2052.221489 6 3 3
-783.611250 798.631954 1856.035614 82 81 75
-161.927915 -405.231810 2783.986282 34 28 22
-173.340344 -375.133920 2763.414955 44 37 28
-647.290993 571.013641 2038.706970 120 120 115
-645.340061 1183.715534 1983.966637 13 9 8
-646.009588 829.061985 2015.802002 14 4 1
-1007.573223 195.582211 1642.780495 22 15 10
-1219.701385 295.494223 1375.498581 5 3 2
-643.020725 762.996960 2025.345230 116 116 109
-1257.768631 562.078142 1314.269161 9 5 4
-646.342945 899.699306 2006.110573 107 105 103
-646.744728 1320.500565 1963.244247 21 11 7
-186.351240 -246.773887 2723.255157 31 23 11
-134.803092 -458.016539 2811.106300 28 26 21
-630.304718 123.975050 2092.942238 37 36 36
-647.279406 989.985847 1989.777756 8 4 3
-1004.826832 449.502516 1612.387276 10 8 8
-170.857096 -378.478122 2749.081039 32 23 14
-174.797153 -386.257029 2743.165398 150 145 135
-628.411961 167.673481 2087.753677 12 10 9
-178.996325 -183.389890 2718.198776 27 19 6
-635.560846 1017.548084 1999.311447 212 185 157
-635.381174 397.312379 2056.374741 27 24 16
-636.446381 468.900824 2047.526169 212 189 162
-630.232525 274.161720 2072.665024 8 3 1
-630.804825 176.372719 2079.690552 8 6 5
-643.469763 1317.973423 1956.672287 175 158 135
-999.848843 406.647253 1616.155052 221 199 180
-627.308846 198.335207 2077.737999 20 11 5
-140.870833 -155.102932 2756.033325 27 19 6
-630.692530 525.733471 2039.294624 105 98 93
-105.838358 26.639929 2776.746559 14 10 3
-265.840912 -77.036393 2580.322266 32 25 16
-101.562834 50.036365 2776.158714 13 9 1
-618.245792 546.255445 2048.998642 139 143 138
-272.676158 -306.042671 2586.289978 176 175 171
-167.839050 -275.874639 2713.450623 38 28 19
-616.299629 167.306948 2083.754539 224 196 172
-160.377300 -52.938223 2702.318764 32 25 16
-161.608875 -212.475562 2712.127495 53 40 25
-170.757604 -359.514761 2710.024071 176 175 171
-610.750055 161.660552 2086.271286 11 11 9
-117.603397 14.821391 2744.474983 142 128 109
-606.189489 92.184699 2097.774124 12 8 7
-169.529712 -330.892372 2706.872559 141 133 120
-129.317260 -4.400515 2728.027153 31 20 8
-615.014124 901.155281 2010.263443 19 11 6
-620.723391 1092.273617 1985.240746 7 3 3
-169.729292 -263.533115 2696.098900 46 35 19
-620.448112 969.838047 1995.496178 105 104 102
-129.014337 -23.609897 2726.544380 26 20 9
-150.371957 -421.980858 2733.425140 178 174 170
-611.494350 711.757708 2028.385353 175 162 139
-611.494350 711.757708 2028.385353 175 162 139
-172.041333 -292.906713 2690.109253 42 33 19
-165.654218 -322.684479 2700.285912 43 34 22
-169.895625 -168.433440 2677.539825 54 44 27
-153.043628 -430.322409 2722.550964 180 179 176
-610.299826 1410.806656 1961.028862 24 17 13
-615.525770 1060.147953 1985.888290 14 10 8
-608.144999 616.506815 2035.698700 36 28 19
-124.064159 -503.162384 2764.805412 53 45 31
-490.042305 1310.275555 2147.943115 18 11 6
-473.783112 646.167421 2205.438042 214 187 157
-142.262435 -422.250128 2725.439644 89 83 68
-596.738005 366.772866 2065.122795 3 1 1
-612.673426 1332.599163 1955.603981 11 8 8
-155.913794 -369.662976 2694.914818 57 44 28
-592.361355 204.618979 2081.069565 231 197 188
-1087.811661 134.990072 1523.732185 71 46 35
-599.526739 637.397385 2031.748390 28 16 9
-144.412625 -201.301789 2692.734909 211 211 201
-1438.137245 235.740161 1102.867126 77 71 64
-593.988419 950.561428 2007.585907 125 128 122
-140.348756 -223.550105 2691.001511 65 57 41
-140.348756 -223.550105 2691.001511 65 57 41
-118.810034 -504.046965 2743.375778 130 128 120
-624.291086 1160.424519 1950.988770 25 19 19
-111.986554 -21.032363 2703.285408 43 32 18
-1172.194958 397.234845 1387.350941 211 184 158
-578.890276 450.501823 2064.143181 198 195 178
-1459.072876 190.731025 1080.022240 211 193 169
-140.547788 -356.475520 2692.371559 66 57 44
-100.629413 4.472121 2710.674858 39 30 16
-763.462639 724.233198 1822.853088 12 9 9
-483.203936 1381.780052 2099.279976 14 11 7
-587.077618 1152.279091 1985.714722 206 184 160
-133.557069 -341.428375 2696.310425 76 72 58
-573.591805 564.777470 2053.145599 15 4 1
-461.874008 417.156601 2208.341026 8 3 4
-129.211819 -392.036128 2697.086525 51 43 30
-100.944006 -17.648146 2699.132729 190 181 170
-100.944006 -17.648146 2699.132729 190 181 170
-569.301701 538.420773 2055.463791 6 0 1
-169.139779 -260.569882 2636.189079 190 190 183
-564.687395 268.770385 2084.039497 18 4 1
-566.653538 273.902678 2080.137634 232 203 193
-113.188756 -463.644886 2717.320251 178 184 182
-556.810617 161.476254 2101.337242 8 3 1
-94.536209 3.227971 2697.363853 124 111 92
-564.920330 127.725089 2092.551422 202 174 149
-562.979412 654.780149 2047.658539 133 130 121
-534.652901 1371.412277 2029.286385 11 8 8
-567.048025 560.068464 2048.119926 13 8 5
-1206.463528 141.341138 1364.019108 214 186 164
-556.718397 126.669848 2092.992592 45 31 22
-543.126440 368.545103 2088.480568 11 8 8
-109.577322 -111.652744 2673.908615 179 178 166
-107.066679 -383.473468 2700.239563 67 64 50
-113.321817 -239.899683 2677.552032 83 81 77
-84.231883 -525.294161 2733.175087 165 166 160
-846.157360 665.383530 1735.732269 205 182 152
-554.640198 1132.002544 1998.746681 11 7 5
-106.325793 -327.164364 2686.588478 163 167 163
-90.358955 -384.628248 2707.353783 61 63 52
-78.486276 -501.823473 2731.536293 80 75 61
-455.855179 973.423576 2132.199860 6 2 1
-70.471716 26.971364 2691.656494 57 48 31
-439.312506 625.261068 2181.668663 25 19 16
-1070.309162 159.081209 1508.152008 227 200 167
-1527.356815 214.483953 987.903595 212 187 171
-170.786023 -213.417315 2587.945938 67 73 71
-540.842438 1086.252117 2005.524826 5 3 2
-540.842438 1086.252117 2005.524826 5 3 2
-74.249315 -469.621611 2717.618561 73 71 59
-66.515011 -506.162930 2725.926208 79 75 63
-100.135779 1845.863533 2473.884392 17 13 12
-281.728506 1032.495308 2321.501923 6 4 4
-516.673470 475.436735 2079.784393 8 6 4
-505.468416 1222.566319 2050.124931 22 13 10
-1834.593964 12.175672 660.151482 120 118 112
-49.534035 -494.651747 2724.963570 74 75 66
-1794.226265 21.570802 696.251297 0 0 0
-44.791511 -482.351017 2727.089691 144 145 137
-823.471642 1016.997623 1681.344795 7 3 2
-7.324102 -15.288050 2716.796494 128 145 159
-61.050087 -329.255295 2673.567200 138 160 176
-61.050087 -329.255295 2673.567200 138 160 176
-564.050198 909.557343 2000.373840 212 182 156
49.446791 -335.136604 2793.290138 138 160 176
49.446791 -335.136604 2793.290138 138 160 176
-574.696302 197.794223 2038.705254 4 1 1
-859.913826 -110.607862 1691.562080 1 1 1
-465.841293 298.685122 2115.797997 198 183 168
-465.841293 298.685122 2115.797997 198 183 168
-1704.650307 72.244042 795.382166 12 11 8
-441.597939 91.800785 2159.336662 4 2 3
-441.597939 91.800785 2159.336662 4 2 3
46.929258 -12.558332 2753.404617 16 13 9
-487.321568 1210.704899 2007.914925 24 11 7
140.198469 854.422474 2783.886147 10 7 8
140.198469 854.422474 2783.886147 10 7 8
-1785.201645 19.657826 704.426813 70 217 233
-470.011473 1198.098373 2017.755127 32 27 26
-453.729439 729.548407 2076.879692 21 18 19
-461.424541 1159.918499 2030.026436 23 18 13
-1780.786705 18.834159 708.738899 6 8 8
-459.031296 866.649342 2053.417587 124 126 125
81.307203 -44.300774 2769.905281 68 62 49
-444.829416 538.495302 2094.698143 19 9 5
-451.660967 941.512108 2050.980759 16 12 11
-456.432009 1154.049778 2023.745537 45 33 26
-445.685339 681.525660 2075.427055 31 18 15
-446.886015 778.841829 2064.821434 19 12 4
-444.327307 793.388987 2066.477585 20 12 8
-458.778620 928.767967 2037.452316 18 10 9
-440.386581 466.838026 2098.111153 210 198 177
-446.815014 806.437683 2060.351944 32 25 16
-479.057026 765.684175 2030.331421 32 25 16
-454.566908 1003.113747 2032.580185 9 9 7
323.367310 631.142426 2977.712250 7 2 2
-450.678301 1102.512741 2024.457359 178 165 144
412.763596 1651.479912 2984.303284 212 182 156
-498.883915 1086.900425 1973.904610 178 165 144
170.537162 -713.373995 2897.839737 58 60 57
-448.051596 1271.491051 2009.472466 164 154 137
-434.973431 925.744915 2052.889633 49 42 33
198.998308 6.041462 2858.231163 46 35 22
198.998308 6.041462 2858.231163 46 35 22
-430.729246 922.537994 2052.814484 167 156 138
-431.594229 443.782949 2092.010880 163 143 113
199.085402 -732.500792 2917.826843 194 200 202
-410.274029 403.856707 2119.139862 185 177 168
-421.684980 622.040129 2087.001610 55 49 43
-428.170395 929.427147 2051.271439 186 173 153
-441.411829 1109.398270 2018.434334 154 137 108
209.586024 -11.882936 2857.075500 177 171 169
-472.791004 371.739268 2080.620575 185 170 148
245.305729 -33.390969 2895.339775 151 145 126
-407.372952 691.965103 2084.702110 60 61 60
-441.612053 1265.703106 1995.813942 185 179 162
-420.517254 1025.039101 2040.158081 143 145 141
-402.530670 396.611953 2111.689949 143 129 104
399.231386 -494.255114 3094.389343 41 38 30
247.901130 -44.152281 2881.807327 150 144 129
236.857200 -30.316448 2863.983536 74 70 59
231.780171 -5.101464 2855.728149 65 60 47
174.462748 1834.173393 2665.497589 32 24 19
-396.399808 693.612814 2084.646606 13 9 6
-404.947186 598.526478 2081.698799 193 188 171
-391.810799 705.977249 2087.188339 174 185 186
-1546.794319 165.506506 941.755009 129 120 102
322.794247 -220.840693 2970.536041 137 132 126
301.541638 -168.472838 2937.386131 54 47 36
286.363792 -128.347385 2912.125969 179 180 176
2635.998726 1084.527016 5433.102417 238 211 188
-365.186453 708.762074 2098.495674 138 143 147
256.514335 -0.681407 2851.598549 52 50 38
256.514335 -0.681407 2851.598549 52 50 38
238.633418 60.804999 2826.468658 75 79 71
-347.631145 657.260084 2120.547867 153 151 148
389.260292 -392.366910 3029.776573 140 136 131
-370.907760 374.028134 2115.766335 188 184 168
296.192455 -127.880478 2899.942589 53 48 36
236.030483 51.001328 2817.883110 193 197 199
236.030483 51.001328 2817.883110 193 197 199
-908.673096 481.107283 1507.888985 13 12 7
-1610.419273 165.006161 868.701553 10 6 5
-373.351383 864.356041 2065.267181 26 27 24
277.908659 -31.189668 2860.100365 62 56 43
289.879918 -96.435785 2878.167343 157 161 159
289.879918 -96.435785 2878.167343 157 161 159
257.119799 36.320904 2828.364182 43 41 31
257.119799 36.320904 2828.364182 43 41 31
-326.613712 367.959332 2153.464317 152 161 160
392.195535 -448.113298 3015.462685 54 50 39
375.287986 -251.342010 2980.004501 152 151 150
-364.842772 709.742594 2081.970787 163 162 154
-348.017430 1466.699028 2035.699081 12 11 10
-332.176352 417.130518 2139.645767 154 158 152
-366.693592 581.756163 2086.756897 151 153 147
-333.870769 1003.216076 2085.467148 22 18 16
373.394680 -303.942895 2970.995712 137 137 135
-305.873394 668.688059 2142.644882 35 36 34
401.396799 -365.007353 2995.654106 134 136 131
370.485950 -267.744017 2949.827957 66 64 54
415.198135 -422.949123 3009.739113 126 127 123
-495.366859 1163.765621 1884.589958 44 40 32
371.677446 -218.360734 2932.061195 142 148 146
371.677446 -218.360734 2932.061195 142 148 146
-313.051486 1047.480202 2080.248642 112 115 109
-313.148785 895.756245 2090.229988 80 83 74
413.365078 -420.450211 2980.556679 70 68 57
-270.676351 472.529697 2164.262772 14 16 11
401.528025 -238.910508 2945.481300 59 56 48
401.528025 -238.910508 2945.481300 59 56 48
405.908728 -491.020632 2968.525505 107 102 92
-1668.601799 -14.163436 826.653004 0 0 0
-290.227842 1050.104904 2087.072945 131 134 130
434.006214 -397.630548 2979.154205 137 143 141
424.834394 -242.479181 2947.564507 162 171 175
2687.001991 -1511.148834 5458.200455 151 173 177
-268.283868 897.976494 2115.449333 17 16 11
-1808.644485 23.824304 682.137156 1 1 1
434.547901 -266.712236 2957.824516 68 67 59
-226.653934 578.577042 2182.101059 158 162 154
459.319258 -518.384790 2993.798828 69 63 50
443.009567 -391.251659 2966.012001 72 72 66
449.126720 -485.679531 2971.645737 128 135 133
-273.856974 1232.503414 2063.213348 161 161 154
-191.695118 257.965231 2222.347069 9 8 8
6438.480377 434.262753 9146.990204 210 183 166
-1642.301941 135.670555 828.273773 14 13 9
-7078.851318 -1219.041348 -4649.964905 193 169 151
-182.241237 374.927354 2208.988380 50 48 47
11465.515900 1292.741871 14217.697144 40 34 30
529.107475 -511.016798 3013.080978 0 0 0
-177.509058 552.306128 2192.786217 3 2 2
-201.676679 1065.314007 2126.636314 32 28 19
-1998.048973 -96.083558 439.444351 35 21 9
-229.117870 1059.771442 2095.640182 89 91 83
570.798731 -537.295437 3048.223114 0 0 0
-168.445146 433.939123 2204.698563 180 165 144
-139.915240 268.379188 2244.027710 8 5 5
-136.289668 366.993499 2238.875389 17 16 10
-124.236655 346.845317 2246.278954 15 9 10
-208.221197 983.126831 2105.933380 149 150 141
-708.852196 537.836742 1630.529213 154 158 150
68.246359 1236.863422 2353.050995 132 133 131
-123.381519 377.808809 2222.374535 101 96 81
-155.176950 1082.881546 2133.010101 92 93 88
-138.166261 1002.955627 2134.006882 24 21 19
-129.315615 985.559940 2142.618942 78 73 62
-122.029793 1012.104034 2146.936798 24 21 19
-129.257452 983.237743 2140.512085 102 96 81
-129.257452 983.237743 2140.512085 102 96 81
-2736.950493 -658.135700 -189.052796 55 44 31
-111.106968 985.713196 2147.638702 163 163 153
-109.238124 1039.301491 2140.923309 34 31 29
3069.924545 2706.266785 5114.070511 26 27 24
351.023030 383.428454 2643.010712 24 11 5
-94.053954 839.951706 2161.788177 13 12 7
-37.727261 1100.069618 2185.861206 31 30 26
65.093982 101.224577 2350.564194 12 6 5
-4.114242 894.925690 2205.074501 28 18 14
33.260942 452.576256 2261.255074 152 153 142
2671.044922 2378.618431 4605.813217 10 8 7
88.900042 399.285340 2316.646004 16 12 8
84.648275 548.855019 2295.388222 23 18 17
46.354869 1113.968945 2213.373947 29 31 28
57.285845 954.324722 2231.355858 120 121 117
-3640.003586 -1260.299206 -1001.725388 55 44 31
-2262.526512 -221.243477 172.840548 32 17 5
41.376933 951.427174 2214.173889 87 87 78
85.813040 399.411082 2292.190552 99 98 88
102.287006 1306.826401 2235.166168 23 19 18
119.271290 514.514971 2309.259605 94 92 88
813.700294 2267.328644 2821.800613 18 16 16
70.510590 952.655697 2223.934174 102 98 88
113.131535 695.971727 2276.475525 141 145 139
101.460576 484.717798 2280.296326 153 156 147
158.303523 529.901934 2326.932144 8 6 5
165.935409 381.219077 2341.241455 126 126 122
280.676365 288.683987 2458.539200 189 164 148
137.205875 384.283471 2312.680626 92 90 82
194.128954 366.586900 2349.273872 122 123 119
223.716807 361.283374 2372.922325 28 27 26
188.473964 622.013044 2313.419724 136 143 136
151.128042 1224.005795 2234.274673 129 135 128
222.895861 359.479618 2362.290001 122 123 122
247.985077 282.604074 2385.092735 11 5 2
-2131.284714 -146.415067 403.289318 35 36 34
224.827123 1480.289745 2255.095482 19 15 14
797.519922 2171.381569 2696.590805 1 1 1
-2435.193062 -416.343927 166.371047 8 6 4
344.645834 1324.391842 2339.173698 11 9 8
157.373738 775.015306 2223.467445 18 16 12
446.557760 861.917496 2448.480988 66 68 69
-1831.273079 9.501813 662.428999 65 63 60
419.173574 1399.343586 2375.251770 5 8 6
-1710.938454 39.396715 757.107925 34 41 45
402.734995 1018.778515 2390.730286 9 11 11
375.576830 1061.736202 2364.007950 7 11 10
-604.998589 849.307251 1583.107758 115 154 164
-1948.480797 -76.789379 532.567453 142 141 139
-16258.125305 -11903.318024 -10636.141968 250 250 250
-968.212223 404.056406 2544.467354 0 0 0
-1652.919388 163.542807 1348.186874 0 0 0
-1920.993423 54.600149 882.468510 145 172 182
-1758.907127 144.718945 1156.015205 8 6 3
-1657.404900 159.418654 1329.600811 21 16 13
-932.059956 752.980232 2510.791779 10 6 6
-1801.208878 220.687151 1067.072582 145 172 182
-1749.462509 221.256113 1011.116695 0 0 0
-1955.204391 32.149228 822.963428 10 8 5
-1789.110947 149.532223 1091.990089 8 5 3
-1787.704468 164.979386 1090.433598 31 23 20
-1166.220188 742.165709 2065.038109 31 23 20
-935.189438 300.284767 2509.269905 17 7 3
-923.652840 1338.887882 2388.238525 112 91 69
-942.521381 757.712507 2422.894096 12 7 4
-941.786194 786.973619 2417.777824 15 8 6
-939.003372 923.525333 2404.383850 12 7 5
-959.915257 1288.425541 2312.141609 188 154 120
-949.969292 780.432892 2393.745995 23 11 4
-943.369007 313.326454 2468.051529 23 11 6
-935.595131 339.231539 2468.859291 157 131 106
-926.074600 1259.321976 2359.578323 16 12 7
-1054.777336 172.881675 2265.035629 12 9 8
-927.983665 1235.070515 2349.845695 131 103 79
-937.531757 355.816150 2449.528503 4 6 2
-832.541943 1473.041534 2490.064621 12 4 1
-933.753777 234.347796 2468.848801 168 135 115
-934.240723 1066.458511 2346.674728 12 6 3
-925.528049 916.086864 2381.205559 22 12 9
-929.737663 301.026177 2450.570869 20 11 5
-1142.923927 760.140991 2044.319916 56 40 22
-934.450436 373.474121 2429.906273 12 7 5
-934.972286 675.041819 2386.017990 36 25 21
-924.136162 296.789718 2455.387878 11 5 2
-930.902004 810.171318 2372.651482 26 18 16
-926.904774 900.025749 2367.931557 218 180 146
-1195.952988 443.378830 1993.342590 11 6 5
-924.443626 660.597897 2401.438713 14 7 6
-931.983566 680.392981 2384.468651 15 5 3
-928.445339 372.031474 2426.086426 15 4 1
-925.627041 183.770919 2451.521873 12 9 8
-924.669933 168.817055 2453.311920 208 179 144
-1253.067303 137.640786 1874.891281 228 215 185
-921.679306 806.708813 2372.455406 7 1 0
-922.196388 140.793788 2457.604027 183 153 130
-928.026581 332.307816 2419.041634 11 7 6
-923.480034 691.580296 2379.796982 27 19 15
-682.671547 335.593677 2856.376839 13 8 5
-915.422344 351.967907 2434.305191 9 7 6
-918.317699 278.619027 2436.425781 5 2 1
-918.317699 278.619027 2436.425781 5 2 1
-1040.878201 695.988655 2161.129189 7 3 1
-1562.207031 199.909234 1390.108013 6 0 1
-918.566322 557.853889 2390.999794 242 207 177
-921.594143 553.577232 2386.102867 234 192 158
-915.875340 923.557854 2346.916580 9 2 1
-923.503780 1089.679718 2311.471176 14 6 4
-921.022797 307.393384 2417.299271 13 7 4
-907.909679 1060.274220 2340.254593 5 5 2
-918.748569 244.283032 2425.778389 27 21 17
-1189.984608 464.208174 1969.355774 12 3 2
-918.307018 554.849625 2382.747459 67 41 22
-926.616859 696.262264 2349.531746 48 39 31
-920.487595 393.006396 2395.763969 24 16 11
-920.260048 1104.537964 2298.983002 110 94 78
-914.453030 920.213985 2330.765152 50 21 11
-909.242058 344.568706 2409.406662 210 190 159
-915.322018 229.072380 2411.281204 179 156 131
-1647.968483 320.898104 1238.433743 77 40 15
-1264.449978 764.433765 1785.399246 12 4 1
-916.519451 578.398418 2361.315918 19 10 6
-1272.459126 770.219040 1769.292450 12 3 1
-908.643913 131.037915 2428.073120 134 110 84
-908.643913 131.037915 2428.073120 134 110 84
-913.741302 349.198246 2389.897919 8 7 4
-914.863205 915.597057 2311.987114 31 19 7
-908.460617 1203.050709 2279.338837 152 128 103
-909.893608 332.751441 2387.642860 20 7 1
-907.452488 568.957472 2357.651520 15 3 0
-900.348282 1077.426147 2303.718758 8 2 1
-908.151913 575.392818 2352.887535 28 8 2
-1674.996567 199.109960 1234.002876 18 6 2
-909.532547 330.910468 2378.596497 167 128 102
-907.228279 432.282019 2369.559097 31 13 6
-903.783512 700.375557 2339.168930 13 8 6
-901.349545 1115.773201 2288.119888 36 18 10
-689.922142 1343.758488 2634.597015 42 27 12
-900.534153 865.252304 2316.041946 9 4 2
-914.084435 389.272690 2342.854881 15 13 9
-887.632465 1312.805557 2270.212746 154 140 116
-891.403484 1333.235741 2261.195755 8 5 3
-901.612282 869.337177 2300.559044 17 10 3
-886.733913 1308.413601 2263.401794 6 3 2
-899.307537 873.506737 2295.626068 15 7 2
-899.043083 471.078014 2346.140671 11 5 3
-891.893291 1312.914658 2247.061920 20 12 5
-1007.971382 858.727360 2108.288193 17 11 7
-1619.861221 344.517088 1272.732639 13 8 6
-889.889622 962.894630 2289.456177 9 4 1
-889.028072 1132.148170 2266.403198 12 6 4
-889.028072 1132.148170 2266.403198 12 6 4
-897.210121 342.060733 2349.487305 15 9 5
-886.244583 1318.294048 2243.659210 16 7 1
-892.903709 240.910006 2363.317108 13 10 9
-884.118652 341.711903 2365.173531 13 9 6
-907.852173 363.987184 2322.576332 194 178 149
-646.218348 1743.811989 2579.767609 19 11 5
-895.247078 236.349893 2352.060509 16 9 5
-884.995937 1128.042412 2256.954002 18 4 1
-1166.487122 495.731831 1902.773285 6 1 0
-886.836720 1129.263401 2252.611351 209 174 136
-1498.008347 495.827913 1444.342995 12 4 1
-891.618443 618.420267 2302.868080 16 6 1
-887.402630 893.664742 2275.342178 16 9 5
-888.831520 1332.671642 2216.337776 137 118 96
-893.746758 240.906215 2341.119957 211 186 155
-893.746758 240.906215 2341.119957 211 186 155
-882.785130 614.802313 2311.305809 6 2 1
-887.881851 286.494112 2339.787102 15 5 1
-891.865444 343.110847 2324.292946 18 13 9
-895.246887 239.461493 2330.752945 17 5 2
-884.726906 476.681423 2316.431618 240 204 166
-881.350708 215.250468 2344.367027 16 12 9
-889.329147 509.965515 2290.151596 11 7 4
-875.919628 1273.874378 2216.644669 19 14 10
-873.245144 641.315651 2293.797493 9 5 3
-886.823559 512.460232 2286.696815 10 8 7
-1654.356194 269.997334 1205.378342 224 209 167
-873.615074 1244.999599 2208.163261 61 44 28
-874.774075 173.577249 2336.023331 9 4 2
-875.384235 216.821527 2323.010254 11 3 2
-1006.104851 656.464243 2060.079384 11 5 3
-873.887348 1319.612598 2185.936165 10 5 4
-874.316788 356.202412 2299.172211 243 216 183
-856.402397 102.859879 2354.801178 6 1 0
-873.678970 1295.190144 2184.102058 7 4 3
-865.432358 1258.921051 2200.732231 12 5 1
-1148.710918 798.675776 1857.809639 31 20 11
-870.082760 1008.742523 2220.553017 14 10 9
-866.338253 1291.856098 2191.728020 11 7 6
-866.063786 1337.012672 2186.576653 10 4 3
-878.324413 531.667709 2263.873291 11 5 2
-865.010834 340.768504 2307.681465 10 5 4
-872.891712 349.675775 2293.037796 197 167 137
-851.745605 110.068619 2354.848099 11 6 4
-874.480629 381.778908 2284.313393 12 6 4
-1264.803219 609.623146 1696.535492 179 159 128
-858.442307 1259.954166 2200.350189 20 15 10
-869.559193 1186.014843 2182.542038 55 46 37
-865.149403 1193.507957 2186.157990 15 7 4
-866.597843 537.991238 2259.940720 8 2 1
-1930.993462 65.668565 850.254440 189 175 151
-869.209194 240.276527 2288.962555 233 210 179
-859.368229 1247.829628 2179.988289 20 11 3
-859.991455 380.185509 2278.940964 19 7 3
-851.562405 316.209936 2299.481201 18 15 14
-1285.613251 450.227642 1671.339226 18 13 10
-857.067871 179.403293 2305.241585 15 11 10
-1264.383507 781.790018 1607.204628 21 10 7
-980.678463 362.524366 2092.854881 11 7 5
-828.790665 1450.861073 2193.941689 33 29 21
-861.244774 1205.161953 2173.103333 126 114 91
-861.660767 201.310849 2290.751076 26 20 16
-861.660767 201.310849 2290.751076 26 20 16
-856.039333 115.051413 2304.718399 9 8 6
-856.039333 115.051413 2304.718399 9 8 6
-864.753342 190.493178 2279.222298 221 185 147
-858.658695 1212.887287 2167.590332 138 125 103
-829.568672 98.645121 2340.827560 160 143 118
-858.543396 656.747484 2230.240822 29 10 4
-847.891617 1189.087391 2183.755875 10 6 5
-852.787018 1227.467537 2168.940926 23 17 12
-852.787018 1227.467537 2168.940926 23 17 12
-865.449619 217.921233 2267.033768 2 0 0
-859.572506 697.293854 2218.819809 8 2 0
-853.415203 397.620773 2262.297440 15 5 1
-856.973743 1351.152992 2143.244362 195 161 133
-855.108070 950.872707 2192.758369 9 3 0
-1576.423168 376.399708 1285.864067 185 162 134
-858.448505 568.572187 2226.784706 6 2 2
-847.769737 823.750687 2204.912758 35 23 12
-853.342056 415.540648 2241.546059 11 7 5
-846.614742 1089.838505 2167.859268 169 160 152
-850.502014 578.020430 2218.559074 9 4 1
-841.652012 1240.632248 2153.677559 16 12 11
-841.486359 1312.599277 2140.206528 23 20 18
-847.409344 677.830219 2200.641060 18 2 0
-848.011303 165.579343 2257.347298 18 9 6
-846.210480 247.098756 2250.011063 16 6 3
-846.520996 586.940432 2209.229660 13 8 6
-847.884846 1103.748608 2141.712952 7 3 2
-827.159691 1364.120102 2136.492538 11 6 3
-964.670372 474.767685 2036.877632 13 6 2
-845.019531 856.712246 2165.503883 6 5 2
-1960.877037 26.971018 808.579636 200 174 149
-841.506672 570.532465 2199.615479 5 4 2
-844.970608 1085.453224 2134.423065 4 2 1
-841.291904 683.862400 2181.798744 8 4 2
-824.006462 545.867825 2220.475388 11 8 5
-841.640568 599.961376 2186.944771 8 4 1
-837.911320 1118.711758 2132.110023 5 2 1
-831.890583 1097.991657 2140.536308 6 3 3
-1584.560013 307.179189 1260.926819 9 4 4
-839.081860 737.027264 2170.122910 8 4 3
-829.675198 1214.750481 2128.727913 16 13 10
-792.672873 74.267650 2304.506874 189 171 145
-832.805157 962.213993 2142.487907 199 161 132
-822.379303 1426.353645 2104.849434 0 0 0
-828.440189 372.147202 2213.045883 30 18 14
-1778.855705 91.607386 1042.848492 219 221 197
-2230.241394 -238.695574 450.485563 42 20 7
-832.157421 464.517641 2190.018845 12 10 10
-825.207043 1389.867973 2094.106674 24 17 13
-824.083614 584.684515 2185.743332 215 188 152
-824.083614 584.684515 2185.743332 215 188 152
-843.765545 688.220358 2144.975281 8 4 1
-811.994743 94.762069 2255.458260 169 154 131
-823.840809 886.347389 2149.425697 19 16 11
-824.455833 872.686672 2149.415016 14 3 1
-824.190521 298.838162 2214.185715 217 195 165
-7823.686218 -5522.631073 -6894.235992 63 41 17
-827.128124 465.533257 2184.150696 15 12 12
-833.076763 754.387236 2141.851425 11 4 2
-834.110832 471.490908 2171.416664 11 7 5
-824.044228 881.065083 2136.409378 9 5 4
-818.549728 580.102253 2171.442223 215 180 141
-826.712322 478.867531 2171.020126 22 13 11
-822.324753 620.478582 2156.159782 170 136 113
-809.447098 113.440847 2230.400848 73 68 67
-831.791878 1149.412632 2081.679726 103 90 74
-826.070118 521.624517 2159.305573 187 168 140
-396.403122 221.337700 2787.468910 15 5 3
-1492.344761 142.980146 1402.036667 224 193 155
-653.581953 415.916824 2407.687187 10 5 3
-821.507645 768.772507 2133.793449 12 8 5
4282.540894 3685.616684 8882.371521 203 167 136
-821.488094 709.699726 2139.726639 184 147 116
-821.488094 709.699726 2139.726639 184 147 116
-826.333237 804.136276 2120.364380 200 182 153
-810.481167 459.020758 2177.515602 12 7 3
-814.722538 895.681190 2122.461319 38 18 7
-815.034294 290.982628 2187.795639 21 12 6
-823.237038 1063.623238 2090.631104 195 179 150
-815.345573 904.520321 2118.140602 19 11 7
-827.791595 1184.438515 2069.737625 196 182 154
-814.735317 630.932045 2147.967148 28 20 16
-814.088249 645.158291 2137.831688 27 19 16
-810.038185 901.122284 2115.119743 15 8 5
-810.881615 447.009039 2163.049889 5 3 3
-807.747746 874.183083 2115.122604 6 2 2
-807.446003 1272.011089 2071.420860 189 167 138
-812.329578 1105.887890 2082.924843 10 6 2
-810.756207 459.909439 2152.099228 240 213 181
-807.986355 1255.880737 2068.586159 6 4 3
-932.080746 466.254854 2024.937630 17 2 1
-802.859020 92.506355 2200.976181 6 4 3
-1556.007004 404.601288 1252.315521 49 38 32
-754.850626 65.581089 2267.443275 12 10 4
-812.831402 640.073204 2125.832367 236 199 168
-811.551094 505.158424 2140.797997 28 19 14
-806.654644 550.484276 2140.934944 15 2 0
-814.855957 793.791151 2102.750969 165 159 141
-804.928684 632.377815 2133.459473 17 11 9
-808.391190 451.204252 2148.226166 17 3 0
-807.554150 455.269909 2147.455978 201 178 154
-338.494229 244.675589 2802.696228 232 194 162
14.037338 374.084115 3262.924957 15 8 5
-810.960102 1052.092266 2074.324417 174 165 149
-803.374672 909.636784 2098.639107 14 2 1
-804.457760 912.546253 2096.464729 208 174 150
-810.190487 1169.106102 2060.512924 18 12 8
-810.674477 1085.968208 2067.908096 236 202 162
-806.803894 1179.461288 2060.905266 150 142 127
-789.326954 100.626934 2199.524307 8 7 6
-802.772331 523.633242 2135.441971 158 140 124
-797.422743 654.080868 2126.145554 26 21 20
-797.861433 1281.507111 2056.462479 9 3 1
-834.286785 280.474520 2121.309471 71 50 39
-793.405485 1131.300545 2072.879219 50 32 18
-800.716400 920.996189 2084.680557 15 12 8
-794.128323 467.301464 2142.353630 4 2 1
-797.686243 536.726618 2130.024910 27 15 7
-790.188503 561.653423 2134.148026 5 3 2
-798.632526 618.328476 2116.738319 10 6 3
-782.433224 753.534842 2122.973824 21 20 18
-1137.062931 371.274543 1741.180801 14 9 9
-793.036842 1101.977158 2067.375374 24 21 19
-796.175718 500.961018 2127.649307 21 12 7
-1080.058289 791.018486 1764.329147 24 21 19
-298.509812 189.618647 2817.874908 10 7 6
-788.574743 587.025928 2127.212524 14 9 9
-1589.311218 295.856810 1214.346981 15 11 8
-620.488167 468.691397 2362.637520 8 5 3
-620.488167 468.691397 2362.637520 8 5 3
-799.321938 533.607960 2116.692352 12 7 5
-724.571466 59.405184 2260.198402 24 21 15
-783.007622 131.128085 2171.603775 27 18 16
-783.007622 131.128085 2171.603775 27 18 16
-788.968563 917.605877 2077.212334 52 34 19
-748.953867 72.867495 2219.598389 195 175 155
-274.058962 116.728771 2833.535385 9 6 6
-781.712055 683.530426 2109.180450 7 2 1
-789.354563 279.771018 2142.001343 30 7 3
-1469.398785 349.379158 1341.341496 7 2 1
-777.702093 689.960718 2106.148911 28 19 10
-752.811956 89.451808 2195.882416 15 3 1
-773.765278 581.116247 2111.192322 6 2 1
-775.233459 534.279490 2113.661957 17 15 14
-777.458668 1005.283070 2059.737778 34 28 19
-776.615381 1156.550694 2039.587402 11 7 3
-1701.802444 127.897763 1094.614983 10 3 1
-778.563070 507.056856 2103.421974 13 9 8
-815.545082 695.982790 2040.397263 13 8 6
-604.334307 1157.528877 2257.640648 12 8 3
-716.370344 65.998203 2223.255920 185 163 137
-1134.618568 208.955812 1725.538445 23 19 20
-771.387291 633.447313 2087.533569 15 1 1
-767.026281 657.046127 2088.202286 7 2 0
-765.094805 841.023445 2068.511200 12 7 6
-763.980198 662.265205 2088.581467 202 179 153
-762.965250 563.038015 2099.475670 5 1 0
-571.738386 346.315908 2351.917267 223 211 180
-287.435818 1961.510277 2536.395073 8 5 2
-759.643841 1264.695835 2014.031601 55 32 18
-751.476383 190.990138 2135.355377 232 217 184
-751.476383 190.990138 2135.355377 232 217 184
-553.759861 365.143156 2360.168266 23 17 12
-756.152248 967.966747 2041.175270 18 13 14
-754.988003 200.996137 2115.394592 29 23 20
-560.086012 629.114914 2313.048744 20 14 12
-743.891430 582.272291 2088.900185 7 4 4
-906.495190 268.430972 1961.405563 23 19 20
-749.824238 275.966358 2107.791710 13 10 10
-1222.629356 179.569423 1615.649223 23 19 20
-745.167923 461.620665 2088.513565 6 3 1
-748.567677 233.597994 2102.007675 199 166 135
-744.977951 1058.287907 2021.088982 30 11 3
-742.309189 184.782827 2112.178040 202 173 144
-726.463604 791.715765 2064.854813 222 206 178
-558.980036 1046.170425 2234.901237 203 183 163
-734.774208 194.400573 2106.382179 2 2 1
-532.831526 1049.478245 2284.163284 17 11 9
-1498.494339 380.435514 1280.208969 62 51 29
-727.688265 951.102066 2033.213425 10 8 7
-778.924799 705.291224 2002.110100 14 4 4
-728.442240 994.835377 2027.571678 16 14 13
-733.103609 1342.568970 1985.770607 8 4 3
-768.120956 375.103593 2048.555756 13 6 4
-732.715750 1331.433582 1982.970238 18 11 7
-724.769402 224.457932 2104.259491 22 14 10
-729.578400 911.906147 2026.483917 8 3 2
-718.528080 364.049339 2094.212914 18 13 13
-728.633690 843.916035 2032.419586 53 33 14
-722.780895 707.523870 2051.386070 214 187 160
-729.531002 966.369820 2016.689110 19 15 13
-1762.866211 184.282541 997.971821 190 172 150
-726.219082 576.514959 2056.824875 10 2 2
-686.917973 77.586365 2151.472664 197 185 161
-651.921129 939.178753 2119.104958 207 190 167
-722.693777 679.780149 2048.070908 200 163 138
-722.693777 679.780149 2048.070908 200 163 138
-686.907578 1452.817726 2011.004257 167 168 170
-721.502209 1368.603802 1976.668167 13 9 9
-716.450739 1337.738323 1984.270287 170 153 131
-674.890089 73.346460 2159.564400 18 9 3
-674.890089 73.346460 2159.564400 18 9 3
-709.955549 138.717103 2111.381721 216 195 169
-862.359810 700.662518 1912.012863 235 191 159
-724.854565 948.318672 2011.667252 213 181 152
-717.499781 579.030991 2056.713867 214 188 160
-741.300488 1111.283875 1979.132843 12 7 4
-711.714363 678.126240 2052.252197 206 167 137
-711.714363 678.126240 2052.252197 206 167 137
-513.980341 741.019583 2279.940987 225 206 182
-1332.955456 180.425143 1450.949383 218 198 173
-714.923525 389.438176 2074.279022 211 172 158
-544.390440 1428.821754 2171.135330 202 177 142
-1423.770523 498.020458 1317.491722 35 17 6
-706.669474 1405.399513 1979.837990 30 24 20
-715.766478 308.682418 2078.690338 101 81 69
-713.021421 1134.355259 1998.142052 42 21 13
-709.732962 673.917198 2047.777176 14 4 3
-715.228701 1125.027084 1992.730522 20 13 7
-708.352995 1263.849640 1985.993385 32 21 12
-713.390017 1276.681137 1977.218437 14 10 7
-698.651552 1408.309078 1978.463173 117 100 82
-168.421364 -182.483947 2753.140831 28 21 13
-183.086479 -296.752858 2746.881294 38 28 18
-655.948019 228.111982 2156.442261 8 4 1
-247.889614 -55.567187 2646.416664 23 14 7
-706.605625 1111.958885 1991.856766 8 5 4
-178.375483 -259.346867 2738.539124 137 131 118
-210.843492 -221.366382 2699.361992 137 131 118
-1122.200775 229.172087 1646.133614 11 6 3
-687.907410 108.734584 2107.670975 188 167 142
-111.927152 -32.205138 2784.897041 23 14 7
-693.140030 548.802567 2056.066132 206 181 159
-684.145451 102.268028 2110.427856 17 10 6
-147.198868 -442.054319 2777.649307 32 29 19
-90.562284 -544.782114 2851.710701 37 28 18
-697.469139 1105.839729 1991.754723 28 13 5
-697.337198 419.529057 2059.820366 213 191 167
-691.598558 507.578516 2057.508850 13 2 1
-177.170098 -196.308672 2716.607666 41 30 16
-698.478222 1146.309280 1985.437202 53 32 14
-162.780607 -163.335681 2727.102852 53 40 26
-697.068071 433.919621 2055.963516 8 0 1
-690.616512 1310.364151 1976.436806 11 6 7
-692.907953 1003.208256 2003.461456 28 20 10
-692.168427 415.258265 2060.096550 199 176 149
-157.983708 -400.333309 2750.364113 191 186 177
-742.417955 176.902437 2032.375526 191 183 162
-698.057461 183.862317 2075.298119 12 4 3
-196.509206 905.983639 2576.115227 225 206 182
-116.961646 -12.446801 2753.584862 185 177 171
-662.432909 102.508950 2120.891762 180 182 168
-118.991208 -508.586693 2794.791031 29 22 11
-691.734934 973.516178 1998.289108 42 22 14
-661.251926 88.538790 2119.295883 181 161 139
-111.871791 78.581667 2742.234612 7 3 3
-156.439245 -315.035939 2729.017258 59 46 30
-160.487306 -162.938666 2708.409691 182 179 169
-684.490299 441.352081 2055.013847 141 138 135
-153.230596 -421.526146 2741.164017 57 48 36
-686.167669 366.593528 2059.524536 8 3 1
-686.829805 880.704594 2006.459045 13 10 9
-108.231723 4.618974 2746.180344 27 19 11
-131.482983 -64.440489 2726.094818 125 113 97
-893.987274 239.236331 1881.000137 224 198 168
-157.101691 -307.781053 2719.655228 60 49 33
-1095.838642 -264.832830 1656.669807 1 1 1
-611.731148 1030.114079 2084.022903 14 6 2
-164.675140 -229.874659 2695.804596 59 47 30
-72.292793 -561.457443 2829.337883 36 24 11
-153.172064 -120.375955 2693.878555 41 30 17
-680.838537 1333.060265 1957.753181 19 10 7
-663.758421 119.395590 2095.281601 18 17 16
-667.657471 278.534865 2074.929810 20 7 1
-115.473592 -62.700975 2723.684502 40 27 16
-146.953809 -396.287465 2718.314934 64 53 38
-669.746351 720.098782 2025.009346 21 9 4
-142.272997 -186.446869 2701.563263 66 56 43
-672.239161 918.960476 2002.337074 8 1 0
-666.279030 581.077194 2041.040611 21 14 10
-668.581343 1039.802361 1992.181587 27 14 4
-153.047943 -265.199304 2692.610741 197 197 194
-661.971998 168.491495 2083.530045 2 2 1
-1192.764187 271.417332 1556.887054 217 179 152
-1632.484245 308.262897 1105.435753 185 161 133
-148.556972 -382.977986 2707.619476 67 60 47
-667.750788 393.424797 2054.197884 181 151 132
-149.301076 -279.244661 2695.109367 78 71 52
-721.416759 615.814447 1976.817131 68 61 52
-504.875326 179.495943 2255.196190 10 2 1
